ply
format ascii 1.0
comment alpha=1.0
element vertex 2164
property float x
property float y
property float z
property uchar red
property uchar green
property uchar blue z
end_header
11 35 0 255 255 255
11 36 0 255 255 255
11 37 0 255 255 255
11 38 0 255 255 255
11 39 0 255 255 255
11 40 0 255 255 255
11 41 0 255 255 255
11 42 0 255 255 255
11 43 -0.000572477 255 255 255
11 44 -2.00013 255 255 255
11 45 -4.60664 255 255 255
11 46 -2.4771 255 255 255
11 47 -5.60805 255 255 255
11 48 -4.99341 255 255 255
11 49 -6.18774 255 255 255
11 50 -5.06715 255 255 255
11 51 -6.28779 255 255 255
11 52 -11.5382 255 255 255
11 53 -8.37799 255 255 255
11 54 -6.93193 255 255 255
11 55 -4.71325 255 255 255
11 56 -4.30589 255 255 255
11 57 -5.55816 255 255 255
11 58 -7.11867 255 255 255
11 59 -13.1589 255 255 255
11 60 -4.14436 255 255 255
11 61 -211.827 255 255 255
11 62 -7.98606 255 255 255
11 63 0 255 255 255
11 64 0 255 255 255
11 65 0 255 255 255
11 66 0 255 255 255
11 67 0 255 255 255
11 68 0 255 255 255
11 69 0 255 255 255
11 70 0 255 255 255
11 71 0 255 255 255
11 72 0 255 255 255
11 73 0 255 255 255
11 74 0 255 255 255
11 75 0 255 255 255
11 76 0 255 255 255
11 77 0 255 255 255
11 78 0 255 255 255
11 79 0 255 255 255
11 80 0 255 255 255
11 81 0 255 255 255
11 82 0 255 255 255
11 83 0 255 255 255
11 84 0 255 255 255
11 85 0 255 255 255
11 86 0 255 255 255
11 87 0 255 255 255
11 88 0 255 255 255
11 89 0 255 255 255
11 90 0 255 255 255
11 91 0 255 255 255
11 92 0 255 255 255
11 93 0 255 255 255
11 94 0 255 255 255
11 95 0 255 255 255
11 96 0 255 255 255
11 97 0 255 255 255
11 98 0 255 255 255
11 99 0 255 255 255
11 100 0 255 255 255
11 101 0 255 255 255
11 102 0 255 255 255
11 103 0 255 255 255
11 104 0 255 255 255
11 105 0 255 255 255
11 106 0 255 255 255
11 107 0 255 255 255
11 108 0 255 255 255
11 109 0 255 255 255
11 110 0 255 255 255
11 111 0 255 255 255
11 112 0 255 255 255
11 113 0 255 255 255
11 114 0 255 255 255
11 115 0 255 255 255
11 116 0 255 255 255
11 117 0 255 255 255
11 118 0 255 255 255
11 119 0 255 255 255
12 0 0 255 255 255
12 1 0 255 255 255
12 2 0 255 255 255
12 3 0 255 255 255
12 4 0 255 255 255
12 5 0 255 255 255
12 6 0 255 255 255
12 7 0 255 255 255
12 8 0 255 255 255
12 9 0 255 255 255
12 10 0 255 255 255
12 11 0 255 255 255
12 12 0 255 255 255
12 13 0 255 255 255
12 14 0 255 255 255
12 15 0 255 255 255
12 16 0 255 255 255
12 17 0 255 255 255
12 18 0 255 255 255
12 19 0 255 255 255
12 20 0 255 255 255
12 21 0 255 255 255
12 22 0 255 255 255
12 23 0 255 255 255
12 24 0 255 255 255
12 25 0 255 255 255
12 26 0 255 255 255
12 27 0 255 255 255
12 28 0 255 255 255
12 29 0 255 255 255
12 30 0 255 255 255
12 31 0 255 255 255
12 32 0 255 255 255
12 33 0 255 255 255
12 34 0 255 255 255
12 35 0 255 255 255
12 36 0 255 255 255
12 37 0 255 255 255
12 38 0 255 255 255
12 39 0 255 255 255
12 40 0 255 255 255
12 41 0 255 255 255
12 42 0 255 255 255
12 43 -0.210239 255 255 255
12 44 -2.51087 255 255 255
12 45 -5.91753 255 255 255
12 46 -3.92103 255 255 255
12 47 -7.10172 255 255 255
12 48 -6.49414 255 255 255
12 49 -7.56688 255 255 255
12 50 -6.09738 255 255 255
12 51 -7.20553 255 255 255
12 52 -12.5776 255 255 255
12 53 -9.46618 255 255 255
12 54 -7.97309 255 255 255
12 55 -5.75626 255 255 255
12 56 -5.40217 255 255 255
12 57 -6.62208 255 255 255
12 58 -8.30732 255 255 255
12 59 -14.2883 255 255 255
12 60 -5.31356 255 255 255
12 61 -212.843 255 255 255
12 62 -8.22045 255 255 255
12 63 -2.59071 255 255 255
12 64 0 255 255 255
12 65 0 255 255 255
12 66 0 255 255 255
12 67 0 255 255 255
12 68 0 255 255 255
12 69 0 255 255 255
12 70 0 255 255 255
12 71 0 255 255 255
12 72 0 255 255 255
12 73 0 255 255 255
12 74 0 255 255 255
12 75 0 255 255 255
12 76 0 255 255 255
12 77 0 255 255 255
12 78 0 255 255 255
12 79 0 255 255 255
12 80 0 255 255 255
12 81 0 255 255 255
12 82 0 255 255 255
12 83 0 255 255 255
12 84 0 255 255 255
12 85 0 255 255 255
12 86 0 255 255 255
12 87 0 255 255 255
12 88 0 255 255 255
12 89 0 255 255 255
12 90 0 255 255 255
12 91 0 255 255 255
12 92 0 255 255 255
12 93 0 255 255 255
12 94 0 255 255 255
12 95 0 255 255 255
12 96 0 255 255 255
12 97 0 255 255 255
12 98 0 255 255 255
12 99 0 255 255 255
12 100 0 255 255 255
12 101 0 255 255 255
12 102 0 255 255 255
12 103 0 255 255 255
12 104 0 255 255 255
12 105 0 255 255 255
12 106 0 255 255 255
12 107 0 255 255 255
12 108 0 255 255 255
12 109 0 255 255 255
12 110 0 255 255 255
12 111 0 255 255 255
12 112 0 255 255 255
12 113 0 255 255 255
12 114 0 255 255 255
12 115 0 255 255 255
12 116 0 255 255 255
12 117 0 255 255 255
12 118 0 255 255 255
12 119 0 255 255 255
13 0 0 255 255 255
13 1 0 255 255 255
13 2 0 255 255 255
13 3 0 255 255 255
13 4 0 255 255 255
13 5 0 255 255 255
13 6 0 255 255 255
13 7 0 255 255 255
13 8 0 255 255 255
13 9 0 255 255 255
13 10 0 255 255 255
13 11 0 255 255 255
13 12 0 255 255 255
13 13 0 255 255 255
13 14 0 255 255 255
13 15 0 255 255 255
13 16 0 255 255 255
13 17 0 255 255 255
13 18 0 255 255 255
13 19 0 255 255 255
13 20 0 255 255 255
13 21 0 255 255 255
13 22 0 255 255 255
13 23 0 255 255 255
13 24 0 255 255 255
13 25 0 255 255 255
13 26 0 255 255 255
13 27 0 255 255 255
13 28 0 255 255 255
13 29 0 255 255 255
13 30 0 255 255 255
13 31 0 255 255 255
13 32 0 255 255 255
13 33 0 255 255 255
13 34 0 255 255 255
13 35 0 255 255 255
13 36 0 255 255 255
13 37 0 255 255 255
13 38 0 255 255 255
13 39 0 255 255 255
13 40 0 255 255 255
13 41 0 255 255 255
13 42 0.0521537 255 255 255
13 43 0.107763 255 255 255
13 44 -3.61815 255 255 255
13 45 -7.19288 255 255 255
13 46 -5.31078 255 255 255
13 47 -8.5406 255 255 255
13 48 -7.92075 255 255 255
13 49 -9.12729 255 255 255
13 50 -7.65944 255 255 255
13 51 -8.55547 255 255 255
13 52 -13.7641 255 255 255
13 53 -10.5675 255 255 255
13 54 -9.10943 255 255 255
13 55 -6.72737 255 255 255
13 56 -6.43407 255 255 255
13 57 -7.81627 255 255 255
13 58 -9.51796 255 255 255
13 59 -15.4593 255 255 255
13 60 -6.44962 255 255 255
13 61 -214.103 255 255 255
13 62 -9.37932 255 255 255
13 63 -3.35614 255 255 255
13 64 -2.2722 255 255 255
13 65 0 255 255 255
13 66 0 255 255 255
13 67 0 255 255 255
13 68 0 255 255 255
13 69 0 255 255 255
13 70 0 255 255 255
13 71 0 255 255 255
13 72 0 255 255 255
13 73 0 255 255 255
13 74 0 255 255 255
13 75 0 255 255 255
13 76 0 255 255 255
13 77 0 255 255 255
13 78 0 255 255 255
13 79 0 255 255 255
13 80 0 255 255 255
13 81 0 255 255 255
13 82 0 255 255 255
13 83 0 255 255 255
13 84 0 255 255 255
13 85 0 255 255 255
13 86 0 255 255 255
13 87 0 255 255 255
13 88 0 255 255 255
13 89 0 255 255 255
13 90 0 255 255 255
13 91 0 255 255 255
13 92 0 255 255 255
13 93 0 255 255 255
13 94 0 255 255 255
13 95 0 255 255 255
13 96 0 255 255 255
13 97 0 255 255 255
13 98 0 255 255 255
13 99 0 255 255 255
13 100 0 255 255 255
13 101 0 255 255 255
13 102 0 255 255 255
13 103 0 255 255 255
13 104 0 255 255 255
13 105 0 255 255 255
13 106 0 255 255 255
13 107 0 255 255 255
13 108 0 255 255 255
13 109 0 255 255 255
13 110 0 255 255 255
13 111 0 255 255 255
13 112 0 255 255 255
13 113 0 255 255 255
13 114 0 255 255 255
13 115 0 255 255 255
13 116 0 255 255 255
13 117 0 255 255 255
13 118 0 255 255 255
13 119 0 255 255 255
14 0 0 255 255 255
14 1 0 255 255 255
14 2 0 255 255 255
14 3 0 255 255 255
14 4 0 255 255 255
14 5 0 255 255 255
14 6 0 255 255 255
14 7 0 255 255 255
14 8 0 255 255 255
14 9 0 255 255 255
14 10 0 255 255 255
14 11 0 255 255 255
14 12 0 255 255 255
14 13 0 255 255 255
14 14 0 255 255 255
14 15 0 255 255 255
14 16 0 255 255 255
14 17 0 255 255 255
14 18 0 255 255 255
14 19 0 255 255 255
14 20 0 255 255 255
14 21 0 255 255 255
14 22 0 255 255 255
14 23 0 255 255 255
14 24 0 255 255 255
14 25 0 255 255 255
14 26 0 255 255 255
14 27 0 255 255 255
14 28 0 255 255 255
14 29 0 255 255 255
14 30 0 255 255 255
14 31 0 255 255 255
14 32 0 255 255 255
14 33 0 255 255 255
14 34 0 255 255 255
14 35 0 255 255 255
14 36 0 255 255 255
14 37 0 255 255 255
14 38 0 255 255 255
14 39 0 255 255 255
14 40 0 255 255 255
14 41 0 255 255 255
14 42 0.257827 255 255 255
14 43 0.228711 255 255 255
14 44 -4.46047 255 255 255
14 45 -8.16053 255 255 255
14 46 -6.49407 255 255 255
14 47 -9.87616 255 255 255
14 48 -9.37693 255 255 255
14 49 -10.7001 255 255 255
14 50 -9.23902 255 255 255
14 51 -10.1702 255 255 255
14 52 -15.3335 255 255 255
14 53 -12.0155 255 255 255
14 54 -10.4418 255 255 255
14 55 -7.88731 255 255 255
14 56 -7.41989 255 255 255
14 57 -8.76463 255 255 255
14 58 -10.5551 255 255 255
14 59 -16.5819 255 255 255
14 60 -7.53958 255 255 255
14 61 -215.239 255 255 255
14 62 -10.4853 255 255 255
14 63 -4.31894 255 255 255
14 64 -2.5926 255 255 255
14 65 -2.45925 255 255 255
14 66 0 255 255 255
14 67 0 255 255 255
14 68 0 255 255 255
14 69 0 255 255 255
14 70 0 255 255 255
14 71 0 255 255 255
14 72 0 255 255 255
14 73 0 255 255 255
14 74 0 255 255 255
14 75 0 255 255 255
14 76 0 255 255 255
14 77 0 255 255 255
14 78 0 255 255 255
14 79 0 255 255 255
14 80 0 255 255 255
14 81 0 255 255 255
14 82 0 255 255 255
14 83 0 255 255 255
14 84 0 255 255 255
14 85 0 255 255 255
14 86 0 255 255 255
14 87 0 255 255 255
14 88 0 255 255 255
14 89 0 255 255 255
14 90 0 255 255 255
14 91 0 255 255 255
14 92 0 255 255 255
14 93 0 255 255 255
14 94 0 255 255 255
14 95 0 255 255 255
14 96 0 255 255 255
14 97 0 255 255 255
14 98 0 255 255 255
14 99 0 255 255 255
14 100 0 255 255 255
14 101 0 255 255 255
14 102 0 255 255 255
14 103 0 255 255 255
14 104 0 255 255 255
14 105 0 255 255 255
14 106 0 255 255 255
14 107 0 255 255 255
14 108 0 255 255 255
14 109 0 255 255 255
14 110 0 255 255 255
14 111 0 255 255 255
14 112 0 255 255 255
14 113 0 255 255 255
14 114 0 255 255 255
14 115 0 255 255 255
14 116 0 255 255 255
14 117 0 255 255 255
14 118 0 255 255 255
14 119 0 255 255 255
15 0 0 255 255 255
15 1 0 255 255 255
15 2 0 255 255 255
15 3 0 255 255 255
15 4 0 255 255 255
15 5 0 255 255 255
15 6 0 255 255 255
15 7 0 255 255 255
15 8 0 255 255 255
15 9 0 255 255 255
15 10 0 255 255 255
15 11 0 255 255 255
15 12 0 255 255 255
15 13 0 255 255 255
15 14 0 255 255 255
15 15 0 255 255 255
15 16 0 255 255 255
15 17 0 255 255 255
15 18 0 255 255 255
15 19 0 255 255 255
15 20 0 255 255 255
15 21 0 255 255 255
15 22 0 255 255 255
15 23 0 255 255 255
15 24 0 255 255 255
15 25 0 255 255 255
15 26 0 255 255 255
15 27 0 255 255 255
15 28 0 255 255 255
15 29 0 255 255 255
15 30 0 255 255 255
15 31 0 255 255 255
15 32 0 255 255 255
15 33 0 255 255 255
15 34 0 255 255 255
15 35 0 255 255 255
15 36 0 255 255 255
15 37 0 255 255 255
15 38 0 255 255 255
15 39 0 255 255 255
15 40 0 255 255 255
15 41 8.33798 255 255 255
15 42 0.151271 255 255 255
15 43 0.445746 255 255 255
15 44 -4.87684 255 255 255
15 45 -8.75426 255 255 255
15 46 -7.39688 255 255 255
15 47 -10.8426 255 255 255
15 48 -10.6399 255 255 255
15 49 -12.1563 255 255 255
15 50 -10.7571 255 255 255
15 51 -12.0304 255 255 255
15 52 -17.3088 255 255 255
15 53 -13.8296 255 255 255
15 54 -11.9237 255 255 255
15 55 -9.28212 255 255 255
15 56 -8.69921 255 255 255
15 57 -9.76725 255 255 255
15 58 -11.5385 255 255 255
15 59 -17.5084 255 255 255
15 60 -8.65279 255 255 255
15 61 -216.262 255 255 255
15 62 -11.5476 255 255 255
15 63 -5.17624 255 255 255
15 64 -2.6544 255 255 255
15 65 -3.75501 255 255 255
15 66 0 255 255 255
15 67 0 255 255 255
15 68 0 255 255 255
15 69 0 255 255 255
15 70 0 255 255 255
15 71 0 255 255 255
15 72 0 255 255 255
15 73 0 255 255 255
15 74 0 255 255 255
15 75 0 255 255 255
15 76 0 255 255 255
15 77 0 255 255 255
15 78 0 255 255 255
15 79 0 255 255 255
15 80 0 255 255 255
15 81 0 255 255 255
15 82 0 255 255 255
15 83 0 255 255 255
15 84 0 255 255 255
15 85 0 255 255 255
15 86 0 255 255 255
15 87 0 255 255 255
15 88 0 255 255 255
15 89 0 255 255 255
15 90 0 255 255 255
15 91 0 255 255 255
15 92 0 255 255 255
15 93 0 255 255 255
15 94 0 255 255 255
15 95 0 255 255 255
15 96 0 255 255 255
15 97 0 255 255 255
15 98 0 255 255 255
15 99 0 255 255 255
15 100 0 255 255 255
15 101 0 255 255 255
15 102 0 255 255 255
15 103 0 255 255 255
15 104 0 255 255 255
15 105 0 255 255 255
15 106 0 255 255 255
15 107 0 255 255 255
15 108 0 255 255 255
15 109 0 255 255 255
15 110 0 255 255 255
15 111 0 255 255 255
15 112 0 255 255 255
15 113 0 255 255 255
15 114 0 255 255 255
15 115 0 255 255 255
15 116 0 255 255 255
15 117 0 255 255 255
15 118 0 255 255 255
15 119 0 255 255 255
16 0 0 255 255 255
16 1 0 255 255 255
16 2 0 255 255 255
16 3 0 255 255 255
16 4 0 255 255 255
16 5 0 255 255 255
16 6 0 255 255 255
16 7 0 255 255 255
16 8 0 255 255 255
16 9 0 255 255 255
16 10 0 255 255 255
16 11 0 255 255 255
16 12 0 255 255 255
16 13 0 255 255 255
16 14 0 255 255 255
16 15 0 255 255 255
16 16 0 255 255 255
16 17 0 255 255 255
16 18 0 255 255 255
16 19 0 255 255 255
16 20 0 255 255 255
16 21 0 255 255 255
16 22 0 255 255 255
16 23 0 255 255 255
16 24 0 255 255 255
16 25 0 255 255 255
16 26 0 255 255 255
16 27 0 255 255 255
16 28 0 255 255 255
16 29 0 255 255 255
16 30 0 255 255 255
16 31 0 255 255 255
16 32 0 255 255 255
16 33 0 255 255 255
16 34 0 255 255 255
16 35 0 255 255 255
16 36 0 255 255 255
16 37 0 255 255 255
16 38 0 255 255 255
16 39 0 255 255 255
16 40 0 255 255 255
16 41 16.676 255 255 255
16 42 -0.0623803 255 255 255
16 43 0.712789 255 255 255
16 44 -4.78195 255 255 255
16 45 -9.21984 255 255 255
16 46 -8.03372 255 255 255
16 47 -11.7613 255 255 255
16 48 -11.8919 255 255 255
16 49 -13.6487 255 255 255
16 50 -12.3753 255 255 255
16 51 -13.6897 255 255 255
16 52 -18.944 255 255 255
16 53 -15.7761 255 255 255
16 54 -13.7508 255 255 255
16 55 -10.8728 255 255 255
16 56 -10.1279 255 255 255
16 57 -11.076 255 255 255
16 58 -12.7179 255 255 255
16 59 -18.4898 255 255 255
16 60 -9.59209 255 255 255
16 61 -217.134 255 255 255
16 62 -12.2149 255 255 255
16 63 -5.7117 255 255 255
16 64 -2.35647 255 255 255
16 65 -5.11509 255 255 255
16 66 0 255 255 255
16 67 0 255 255 255
16 68 0 255 255 255
16 69 0 255 255 255
16 70 0 255 255 255
16 71 0 255 255 255
16 72 0 255 255 255
16 73 0 255 255 255
16 74 0 255 255 255
16 75 0 255 255 255
16 76 0 255 255 255
16 77 0 255 255 255
16 78 0 255 255 255
16 79 0 255 255 255
16 80 0 255 255 255
16 81 0 255 255 255
16 82 0 255 255 255
16 83 0 255 255 255
16 84 0 255 255 255
16 85 0 255 255 255
16 86 0 255 255 255
16 87 0 255 255 255
16 88 0 255 255 255
16 89 0 255 255 255
16 90 0 255 255 255
16 91 0 255 255 255
16 92 0 255 255 255
16 93 0 255 255 255
16 94 0 255 255 255
16 95 0 255 255 255
16 96 0 255 255 255
16 97 0 255 255 255
16 98 0 255 255 255
16 99 0 255 255 255
16 100 0 255 255 255
16 101 0 255 255 255
16 102 0 255 255 255
16 103 0 255 255 255
16 104 0 255 255 255
16 105 0 255 255 255
16 106 0 255 255 255
16 107 0 255 255 255
16 108 0 255 255 255
16 109 0 255 255 255
16 110 0 255 255 255
16 111 0 255 255 255
16 112 0 255 255 255
16 113 0 255 255 255
16 114 0 255 255 255
16 115 0 255 255 255
16 116 0 255 255 255
16 117 0 255 255 255
16 118 0 255 255 255
16 119 0 255 255 255
17 0 0 255 255 255
17 1 0 255 255 255
17 2 0 255 255 255
17 3 0 255 255 255
17 4 0 255 255 255
17 5 0 255 255 255
17 6 0 255 255 255
17 7 0 255 255 255
17 8 0 255 255 255
17 9 0 255 255 255
17 10 0 255 255 255
17 11 0 255 255 255
17 12 0 255 255 255
17 13 0 255 255 255
17 14 0 255 255 255
17 15 0 255 255 255
17 16 0 255 255 255
17 17 0 255 255 255
17 18 0 255 255 255
17 19 0 255 255 255
17 20 0 255 255 255
17 21 0 255 255 255
17 22 0 255 255 255
17 23 0 255 255 255
17 24 0 255 255 255
17 25 0 255 255 255
17 26 0 255 255 255
17 27 0 255 255 255
17 28 0 255 255 255
17 29 0 255 255 255
17 30 0 255 255 255
17 31 0 255 255 255
17 32 0 255 255 255
17 33 0 255 255 255
17 34 0 255 255 255
17 35 0 255 255 255
17 36 0 255 255 255
17 37 0 255 255 255
17 38 0 255 255 255
17 39 0 255 255 255
17 40 0 255 255 255
17 41 16.9033 255 255 255
17 42 0.0470223 255 255 255
17 43 0.902379 255 255 255
17 44 -4.47685 255 255 255
17 45 -9.11246 255 255 255
17 46 -8.42161 255 255 255
17 47 -12.3839 255 255 255
17 48 -12.8034 255 255 255
17 49 -14.7056 255 255 255
17 50 -13.2571 255 255 255
17 51 -14.8138 255 255 255
17 52 -20.0661 255 255 255
17 53 -17.0303 255 255 255
17 54 -15.2562 255 255 255
17 55 -12.6182 255 255 255
17 56 -11.6709 255 255 255
17 57 -12.3643 255 255 255
17 58 -13.9542 255 255 255
17 59 -19.6777 255 255 255
17 60 -10.4879 255 255 255
17 61 -217.801 255 255 255
17 62 -12.6558 255 255 255
17 63 -6.08617 255 255 255
17 64 -2.11298 255 255 255
17 65 -5.6793 255 255 255
17 66 0 255 255 255
17 67 0 255 255 255
17 68 0 255 255 255
17 69 0 255 255 255
17 70 0 255 255 255
17 71 0 255 255 255
17 72 0 255 255 255
17 73 0 255 255 255
17 74 0 255 255 255
17 75 0 255 255 255
17 76 0 255 255 255
17 77 0 255 255 255
17 78 0 255 255 255
17 79 0 255 255 255
17 80 0 255 255 255
17 81 0 255 255 255
17 82 0 255 255 255
17 83 0 255 255 255
17 84 0 255 255 255
17 85 0 255 255 255
17 86 0 255 255 255
17 87 0 255 255 255
17 88 0 255 255 255
17 89 0 255 255 255
17 90 0 255 255 255
17 91 0 255 255 255
17 92 0 255 255 255
17 93 0 255 255 255
17 94 0 255 255 255
17 95 0 255 255 255
17 96 0 255 255 255
17 97 0 255 255 255
17 98 0 255 255 255
17 99 0 255 255 255
17 100 0 255 255 255
17 101 0 255 255 255
17 102 0 255 255 255
17 103 0 255 255 255
17 104 0 255 255 255
17 105 0 255 255 255
17 106 0 255 255 255
17 107 0 255 255 255
17 108 0 255 255 255
17 109 0 255 255 255
17 110 0 255 255 255
17 111 0 255 255 255
17 112 0 255 255 255
17 113 0 255 255 255
17 114 0 255 255 255
17 115 0 255 255 255
17 116 0 255 255 255
17 117 0 255 255 255
17 118 0 255 255 255
17 119 0 255 255 255
18 0 0 255 255 255
18 1 0 255 255 255
18 2 0 255 255 255
18 3 0 255 255 255
18 4 0 255 255 255
18 5 0 255 255 255
18 6 0 255 255 255
18 7 0 255 255 255
18 8 0 255 255 255
18 9 0 255 255 255
18 10 0 255 255 255
18 11 0 255 255 255
18 12 0 255 255 255
18 13 0 255 255 255
18 14 0 255 255 255
18 15 0 255 255 255
18 16 0 255 255 255
18 17 0 255 255 255
18 18 0 255 255 255
18 19 0 255 255 255
18 20 0 255 255 255
18 21 0 255 255 255
18 22 0 255 255 255
18 23 0 255 255 255
18 24 0 255 255 255
18 25 0 255 255 255
18 26 0 255 255 255
18 27 0 255 255 255
18 28 0 255 255 255
18 29 0 255 255 255
18 30 0 255 255 255
18 31 0 255 255 255
18 32 0 255 255 255
18 33 0 255 255 255
18 34 0 255 255 255
18 35 0 255 255 255
18 36 0 255 255 255
18 37 0 255 255 255
18 38 0 255 255 255
18 39 0 255 255 255
18 40 0 255 255 255
18 41 17.1439 255 255 255
18 42 0.128842 255 255 255
18 43 1.17885 255 255 255
18 44 -4.17867 255 255 255
18 45 -8.69549 255 255 255
18 46 -8.1648 255 255 255
18 47 -12.4873 255 255 255
18 48 -13.0589 255 255 255
18 49 -15.2214 255 255 255
18 50 -13.7361 255 255 255
18 51 -15.5386 255 255 255
18 52 -20.9094 255 255 255
18 53 -17.9364 255 255 255
18 54 -16.1671 255 255 255
18 55 -13.8951 255 255 255
18 56 -13.1066 255 255 255
18 57 -13.8406 255 255 255
18 58 -15.2519 255 255 255
18 59 -20.9032 255 255 255
18 60 -11.4691 255 255 255
18 61 -218.407 255 255 255
18 62 -12.9685 255 255 255
18 63 -6.17492 255 255 255
18 64 -1.88178 255 255 255
18 65 -5.37294 255 255 255
18 66 -299.118 255 255 255
18 67 0 255 255 255
18 68 0 255 255 255
18 69 0 255 255 255
18 70 0 255 255 255
18 71 0 255 255 255
18 72 0 255 255 255
18 73 0 255 255 255
18 74 0 255 255 255
18 75 0 255 255 255
18 76 0 255 255 255
18 77 0 255 255 255
18 78 0 255 255 255
18 79 0 255 255 255
18 80 0 255 255 255
18 81 0 255 255 255
18 82 0 255 255 255
18 83 0 255 255 255
18 84 0 255 255 255
18 85 0 255 255 255
18 86 0 255 255 255
18 87 0 255 255 255
18 88 0 255 255 255
18 89 0 255 255 255
18 90 0 255 255 255
18 91 0 255 255 255
18 92 0 255 255 255
18 93 0 255 255 255
18 94 0 255 255 255
18 95 0 255 255 255
18 96 0 255 255 255
18 97 0 255 255 255
18 98 0 255 255 255
18 99 0 255 255 255
18 100 0 255 255 255
18 101 0 255 255 255
18 102 0 255 255 255
18 103 0 255 255 255
18 104 0 255 255 255
18 105 0 255 255 255
18 106 0 255 255 255
18 107 0 255 255 255
18 108 0 255 255 255
18 109 0 255 255 255
18 110 0 255 255 255
18 111 0 255 255 255
18 112 0 255 255 255
18 113 0 255 255 255
18 114 0 255 255 255
18 115 0 255 255 255
18 116 0 255 255 255
18 117 0 255 255 255
18 118 0 255 255 255
18 119 0 255 255 255
19 0 0 255 255 255
19 1 0 255 255 255
19 2 0 255 255 255
19 3 0 255 255 255
19 4 0 255 255 255
19 5 0 255 255 255
19 6 0 255 255 255
19 7 0 255 255 255
19 8 0 255 255 255
19 9 0 255 255 255
19 10 0 255 255 255
19 11 0 255 255 255
19 12 0 255 255 255
19 13 0 255 255 255
19 14 0 255 255 255
19 15 0 255 255 255
19 16 0 255 255 255
19 17 0 255 255 255
19 18 0 255 255 255
19 19 0 255 255 255
19 20 0 255 255 255
19 21 0 255 255 255
19 22 0 255 255 255
19 23 0 255 255 255
19 24 0 255 255 255
19 25 0 255 255 255
19 26 0 255 255 255
19 27 0 255 255 255
19 28 0 255 255 255
19 29 0 255 255 255
19 30 0 255 255 255
19 31 0 255 255 255
19 32 0 255 255 255
19 33 0 255 255 255
19 34 0 255 255 255
19 35 0 255 255 255
19 36 0 255 255 255
19 37 0 255 255 255
19 38 0 255 255 255
19 39 0 255 255 255
19 40 0 255 255 255
19 41 16.6669 255 255 255
19 42 0.384549 255 255 255
19 43 1.32641 255 255 255
19 44 -3.97989 255 255 255
19 45 -8.29523 255 255 255
19 46 -7.72645 255 255 255
19 47 -11.928 255 255 255
19 48 -12.9969 255 255 255
19 49 -15.4628 255 255 255
19 50 -13.988 255 255 255
19 51 -16.0454 255 255 255
19 52 -21.5456 255 255 255
19 53 -18.6582 255 255 255
19 54 -16.9196 255 255 255
19 55 -14.7958 255 255 255
19 56 -14.1731 255 255 255
19 57 -15.1481 255 255 255
19 58 -16.6232 255 255 255
19 59 -22.2731 255 255 255
19 60 -12.5543 255 255 255
19 61 -219.193 255 255 255
19 62 -13.3578 255 255 255
19 63 -6.24376 255 255 255
19 64 -1.53695 255 255 255
19 65 -5.38517 255 255 255
19 66 -322.043 255 255 255
19 67 -9.94719 255 255 255
19 68 -726.596 255 255 255
19 69 0 255 255 255
19 70 0 255 255 255
19 71 0 255 255 255
19 72 0 255 255 255
19 73 0 255 255 255
19 74 0 255 255 255
19 75 0 255 255 255
19 76 0 255 255 255
19 77 0 255 255 255
19 78 0 255 255 255
19 79 0 255 255 255
19 80 0 255 255 255
19 81 0 255 255 255
19 82 0 255 255 255
19 83 0 255 255 255
19 84 0 255 255 255
19 85 0 255 255 255
19 86 0 255 255 255
19 87 0 255 255 255
19 88 0 255 255 255
19 89 0 255 255 255
19 90 0 255 255 255
19 91 0 255 255 255
19 92 0 255 255 255
19 93 0 255 255 255
19 94 0 255 255 255
19 95 0 255 255 255
19 96 0 255 255 255
19 97 0 255 255 255
19 98 0 255 255 255
19 99 0 255 255 255
19 100 0 255 255 255
19 101 0 255 255 255
19 102 0 255 255 255
19 103 0 255 255 255
19 104 0 255 255 255
19 105 0 255 255 255
19 106 0 255 255 255
19 107 0 255 255 255
19 108 0 255 255 255
19 109 0 255 255 255
19 110 0 255 255 255
19 111 0 255 255 255
19 112 0 255 255 255
19 113 0 255 255 255
19 114 0 255 255 255
19 115 0 255 255 255
19 116 0 255 255 255
19 117 0 255 255 255
19 118 0 255 255 255
19 119 0 255 255 255
20 0 0 255 255 255
20 1 0 255 255 255
20 2 0 255 255 255
20 3 0 255 255 255
20 4 0 255 255 255
20 5 0 255 255 255
20 6 0 255 255 255
20 7 0 255 255 255
20 8 0 255 255 255
20 9 0 255 255 255
20 10 0 255 255 255
20 11 0 255 255 255
20 12 0 255 255 255
20 13 0 255 255 255
20 14 0 255 255 255
20 15 0 255 255 255
20 16 0 255 255 255
20 17 0 255 255 255
20 18 0 255 255 255
20 19 0 255 255 255
20 20 0 255 255 255
20 21 0 255 255 255
20 22 0 255 255 255
20 23 0 255 255 255
20 24 0 255 255 255
20 25 0 255 255 255
20 26 0 255 255 255
20 27 0 255 255 255
20 28 0 255 255 255
20 29 0 255 255 255
20 30 0 255 255 255
20 31 0 255 255 255
20 32 0 255 255 255
20 33 0 255 255 255
20 34 0 255 255 255
20 35 0 255 255 255
20 36 0 255 255 255
20 37 0 255 255 255
20 38 0 255 255 255
20 39 0 255 255 255
20 40 0 255 255 255
20 41 16.1381 255 255 255
20 42 0.788748 255 255 255
20 43 1.43519 255 255 255
20 44 -3.65545 255 255 255
20 45 -7.96709 255 255 255
20 46 -7.19852 255 255 255
20 47 -11.576 255 255 255
20 48 -12.5742 255 255 255
20 49 -15.2368 255 255 255
20 50 -13.9007 255 255 255
20 51 -16.2233 255 255 255
20 52 -21.8775 255 255 255
20 53 -19.1198 255 255 255
20 54 -17.5519 255 255 255
20 55 -15.5555 255 255 255
20 56 -15.0022 255 255 255
20 57 -16.0786 255 255 255
20 58 -17.679 255 255 255
20 59 -23.5655 255 255 255
20 60 -13.872 255 255 255
20 61 -220.109 255 255 255
20 62 -13.9094 255 255 255
20 63 -6.24574 255 255 255
20 64 -1.11059 255 255 255
20 65 -5.16281 255 255 255
20 66 -340.985 255 255 255
20 67 -19.572 255 255 255
20 68 -733.827 255 255 255
20 69 -12.0521 255 255 255
20 70 22.7671 255 255 255
20 71 22.7671 255 255 255
20 72 0 255 255 255
20 73 0 255 255 255
20 74 0 255 255 255
20 75 0 255 255 255
20 76 0 255 255 255
20 77 0 255 255 255
20 78 0 255 255 255
20 79 0 255 255 255
20 80 0 255 255 255
20 81 0 255 255 255
20 82 0 255 255 255
20 83 0 255 255 255
20 84 0 255 255 255
20 85 0 255 255 255
20 86 0 255 255 255
20 87 0 255 255 255
20 88 0 255 255 255
20 89 0 255 255 255
20 90 0 255 255 255
20 91 0 255 255 255
20 92 0 255 255 255
20 93 0 255 255 255
20 94 0 255 255 255
20 95 0 255 255 255
20 96 0 255 255 255
20 97 0 255 255 255
20 98 0 255 255 255
20 99 0 255 255 255
20 100 0 255 255 255
20 101 0 255 255 255
20 102 0 255 255 255
20 103 0 255 255 255
20 104 0 255 255 255
20 105 0 255 255 255
20 106 0 255 255 255
20 107 0 255 255 255
20 108 0 255 255 255
20 109 0 255 255 255
20 110 0 255 255 255
20 111 0 255 255 255
20 112 0 255 255 255
20 113 0 255 255 255
20 114 0 255 255 255
20 115 0 255 255 255
20 116 0 255 255 255
20 117 0 255 255 255
20 118 0 255 255 255
20 119 0 255 255 255
21 0 0 255 255 255
21 1 0 255 255 255
21 2 0 255 255 255
21 3 0 255 255 255
21 4 0 255 255 255
21 5 0 255 255 255
21 6 0 255 255 255
21 7 0 255 255 255
21 8 0 255 255 255
21 9 0 255 255 255
21 10 0 255 255 255
21 11 0 255 255 255
21 12 0 255 255 255
21 13 0 255 255 255
21 14 0 255 255 255
21 15 0 255 255 255
21 16 0 255 255 255
21 17 0 255 255 255
21 18 0 255 255 255
21 19 0 255 255 255
21 20 0 255 255 255
21 21 0 255 255 255
21 22 0 255 255 255
21 23 0 255 255 255
21 24 0 255 255 255
21 25 0 255 255 255
21 26 0 255 255 255
21 27 0 255 255 255
21 28 0 255 255 255
21 29 0 255 255 255
21 30 0 255 255 255
21 31 0 255 255 255
21 32 0 255 255 255
21 33 0 255 255 255
21 34 0 255 255 255
21 35 0 255 255 255
21 36 0 255 255 255
21 37 0 255 255 255
21 38 0 255 255 255
21 39 0 255 255 255
21 40 -1.22376 255 255 255
21 41 16.7302 255 255 255
21 42 0.834992 255 255 255
21 43 1.60692 255 255 255
21 44 -3.45558 255 255 255
21 45 -7.66504 255 255 255
21 46 -6.75042 255 255 255
21 47 -11.1258 255 255 255
21 48 -12.1785 255 255 255
21 49 -14.9003 255 255 255
21 50 -13.5166 255 255 255
21 51 -16.1377 255 255 255
21 52 -22.0585 255 255 255
21 53 -19.3878 255 255 255
21 54 -17.8405 255 255 255
21 55 -15.8746 255 255 255
21 56 -15.4115 255 255 255
21 57 -16.5292 255 255 255
21 58 -18.172 255 255 255
21 59 -24.197 255 255 255
21 60 -14.3743 255 255 255
21 61 -220.138 255 255 255
21 62 -13.5762 255 255 255
21 63 -5.77185 255 255 255
21 64 -0.695742 255 255 255
21 65 -4.90784 255 255 255
21 66 -342.048 255 255 255
21 67 -40.9583 255 255 255
21 68 -743.98 255 255 255
21 69 -18.8395 255 255 255
21 70 15.3421 255 255 255
21 71 7.73028 255 255 255
21 72 -62.3516 255 255 255
21 73 43.7618 255 255 255
21 74 22.7671 255 255 255
21 75 0 255 255 255
21 76 0 255 255 255
21 77 0 255 255 255
21 78 0 255 255 255
21 79 0 255 255 255
21 80 0 255 255 255
21 81 0 255 255 255
21 82 0 255 255 255
21 83 0 255 255 255
21 84 0 255 255 255
21 85 0 255 255 255
21 86 0 255 255 255
21 87 0 255 255 255
21 88 0 255 255 255
21 89 0 255 255 255
21 90 0 255 255 255
21 91 0 255 255 255
21 92 0 255 255 255
21 93 0 255 255 255
21 94 0 255 255 255
21 95 0 255 255 255
21 96 0 255 255 255
21 97 0 255 255 255
21 98 0 255 255 255
21 99 0 255 255 255
21 100 0 255 255 255
21 101 0 255 255 255
21 102 0 255 255 255
21 103 0 255 255 255
21 104 0 255 255 255
21 105 0 255 255 255
21 106 0 255 255 255
21 107 0 255 255 255
21 108 0 255 255 255
21 109 0 255 255 255
21 110 0 255 255 255
21 111 0 255 255 255
21 112 0 255 255 255
21 113 0 255 255 255
21 114 0 255 255 255
21 115 0 255 255 255
21 116 0 255 255 255
21 117 0 255 255 255
21 118 0 255 255 255
21 119 0 255 255 255
22 0 0 255 255 255
22 1 0 255 255 255
22 2 0 255 255 255
22 3 0 255 255 255
22 4 0 255 255 255
22 5 0 255 255 255
22 6 0 255 255 255
22 7 0 255 255 255
22 8 0 255 255 255
22 9 0 255 255 255
22 10 0 255 255 255
22 11 0 255 255 255
22 12 0 255 255 255
22 13 0 255 255 255
22 14 0 255 255 255
22 15 0 255 255 255
22 16 0 255 255 255
22 17 0 255 255 255
22 18 0 255 255 255
22 19 0 255 255 255
22 20 0 255 255 255
22 21 0 255 255 255
22 22 0 255 255 255
22 23 0 255 255 255
22 24 0 255 255 255
22 25 0 255 255 255
22 26 0 255 255 255
22 27 0 255 255 255
22 28 0 255 255 255
22 29 0 255 255 255
22 30 0 255 255 255
22 31 0 255 255 255
22 32 0 255 255 255
22 33 0 255 255 255
22 34 0 255 255 255
22 35 0 255 255 255
22 36 0 255 255 255
22 37 0 255 255 255
22 38 0 255 255 255
22 39 -2.92291 255 255 255
22 40 -0.786839 255 255 255
22 41 16.979 255 255 255
22 42 0.97321 255 255 255
22 43 1.72012 255 255 255
22 44 -3.19456 255 255 255
22 45 -7.26581 255 255 255
22 46 -6.36269 255 255 255
22 47 -10.5623 255 255 255
22 48 -11.8036 255 255 255
22 49 -14.4626 255 255 255
22 50 -13.051 255 255 255
22 51 -15.7053 255 255 255
22 52 -21.8355 255 255 255
22 53 -19.3872 255 255 255
22 54 -17.9869 255 255 255
22 55 -15.9632 255 255 255
22 56 -15.4566 255 255 255
22 57 -16.5668 255 255 255
22 58 -18.2629 255 255 255
22 59 -24.3803 255 255 255
22 60 -14.1761 255 255 255
22 61 -219.724 255 255 255
22 62 -13.1549 255 255 255
22 63 -5.42221 255 255 255
22 64 -0.313729 255 255 255
22 65 -4.60285 255 255 255
22 66 -342.591 255 255 255
22 67 -59.0161 255 255 255
22 68 -756.72 255 255 255
22 69 -30.5248 255 255 255
22 70 4.58899 255 255 255
22 71 -0.5657 255 255 255
22 72 -69.6933 255 255 255
22 73 32.4258 255 255 255
22 74 -23.2647 255 255 255
22 75 50.4218 255 255 255
22 76 22.7671 255 255 255
22 77 0 255 255 255
22 78 0 255 255 255
22 79 0 255 255 255
22 80 0 255 255 255
22 81 0 255 255 255
22 82 0 255 255 255
22 83 0 255 255 255
22 84 0 255 255 255
22 85 0 255 255 255
22 86 0 255 255 255
22 87 0 255 255 255
22 88 0 255 255 255
22 89 0 255 255 255
22 90 0 255 255 255
22 91 0 255 255 255
22 92 0 255 255 255
22 93 0 255 255 255
22 94 0 255 255 255
22 95 0 255 255 255
22 96 0 255 255 255
22 97 0 255 255 255
22 98 0 255 255 255
22 99 0 255 255 255
22 100 0 255 255 255
22 101 0 255 255 255
22 102 0 255 255 255
22 103 0 255 255 255
22 104 0 255 255 255
22 105 0 255 255 255
22 106 0 255 255 255
22 107 0 255 255 255
22 108 0 255 255 255
22 109 0 255 255 255
22 110 0 255 255 255
22 111 0 255 255 255
22 112 0 255 255 255
22 113 0 255 255 255
22 114 0 255 255 255
22 115 0 255 255 255
22 116 0 255 255 255
22 117 0 255 255 255
22 118 0 255 255 255
22 119 0 255 255 255
23 0 0 255 255 255
23 1 0 255 255 255
23 2 0 255 255 255
23 3 0 255 255 255
23 4 0 255 255 255
23 5 0 255 255 255
23 6 0 255 255 255
23 7 0 255 255 255
23 8 0 255 255 255
23 9 0 255 255 255
23 10 0 255 255 255
23 11 0 255 255 255
23 12 0 255 255 255
23 13 0 255 255 255
23 14 0 255 255 255
23 15 0 255 255 255
23 16 0 255 255 255
23 17 0 255 255 255
23 18 0 255 255 255
23 19 0 255 255 255
23 20 0 255 255 255
23 21 0 255 255 255
23 22 0 255 255 255
23 23 0 255 255 255
23 24 0 255 255 255
23 25 0 255 255 255
23 26 0 255 255 255
23 27 0 255 255 255
23 28 0 255 255 255
23 29 0 255 255 255
23 30 0 255 255 255
23 31 0 255 255 255
23 32 0 255 255 255
23 33 0 255 255 255
23 34 0 255 255 255
23 35 0 255 255 255
23 36 0 255 255 255
23 37 -4.54876 255 255 255
23 38 -1.98224 255 255 255
23 39 -3.14311 255 255 255
23 40 -0.503229 255 255 255
23 41 17.1114 255 255 255
23 42 1.08367 255 255 255
23 43 1.86768 255 255 255
23 44 -2.88183 255 255 255
23 45 -6.92635 255 255 255
23 46 -5.98093 255 255 255
23 47 -10.0763 255 255 255
23 48 -11.3911 255 255 255
23 49 -14.0699 255 255 255
23 50 -12.5219 255 255 255
23 51 -15.2648 255 255 255
23 52 -21.4038 255 255 255
23 53 -19.031 255 255 255
23 54 -17.7397 255 255 255
23 55 -15.7097 255 255 255
23 56 -15.2095 255 255 255
23 57 -16.2897 255 255 255
23 58 -18.0154 255 255 255
23 59 -24.0501 255 255 255
23 60 -13.7451 255 255 255
23 61 -219.349 255 255 255
23 62 -12.8043 255 255 255
23 63 -5.05683 255 255 255
23 64 0.0317368 255 255 255
23 65 -4.3548 255 255 255
23 66 -342.915 255 255 255
23 67 -63.2279 255 255 255
23 68 -770.893 255 255 255
23 69 -41.38 255 255 255
23 70 -11.0488 255 255 255
23 71 -9.0253 255 255 255
23 72 -74.3437 255 255 255
23 73 28.4112 255 255 255
23 74 -28.3257 255 255 255
23 75 42.9927 255 255 255
23 76 4.10974 255 255 255
23 77 154.278 255 255 255
23 78 26.9209 255 255 255
23 79 22.7671 255 255 255
23 80 0 255 255 255
23 81 0 255 255 255
23 82 0 255 255 255
23 83 0 255 255 255
23 84 0 255 255 255
23 85 0 255 255 255
23 86 0 255 255 255
23 87 0 255 255 255
23 88 0 255 255 255
23 89 0 255 255 255
23 90 0 255 255 255
23 91 0 255 255 255
23 92 0 255 255 255
23 93 0 255 255 255
23 94 0 255 255 255
23 95 0 255 255 255
23 96 0 255 255 255
23 97 0 255 255 255
23 98 0 255 255 255
23 99 0 255 255 255
23 100 0 255 255 255
23 101 0 255 255 255
23 102 0 255 255 255
23 103 0 255 255 255
23 104 0 255 255 255
23 105 0 255 255 255
23 106 0 255 255 255
23 107 0 255 255 255
23 108 0 255 255 255
23 109 0 255 255 255
23 110 0 255 255 255
23 111 0 255 255 255
23 112 0 255 255 255
23 113 0 255 255 255
23 114 0 255 255 255
23 115 0 255 255 255
23 116 0 255 255 255
23 117 0 255 255 255
23 118 0 255 255 255
23 119 0 255 255 255
24 0 0 255 255 255
24 1 0 255 255 255
24 2 0 255 255 255
24 3 0 255 255 255
24 4 0 255 255 255
24 5 0 255 255 255
24 6 0 255 255 255
24 7 0 255 255 255
24 8 0 255 255 255
24 9 0 255 255 255
24 10 0 255 255 255
24 11 0 255 255 255
24 12 0 255 255 255
24 13 0 255 255 255
24 14 0 255 255 255
24 15 0 255 255 255
24 16 0 255 255 255
24 17 0 255 255 255
24 18 0 255 255 255
24 19 0 255 255 255
24 20 0 255 255 255
24 21 0 255 255 255
24 22 0 255 255 255
24 23 0 255 255 255
24 24 0 255 255 255
24 25 0 255 255 255
24 26 0 255 255 255
24 27 0 255 255 255
24 28 0 255 255 255
24 29 0 255 255 255
24 30 0 255 255 255
24 31 0 255 255 255
24 32 0 255 255 255
24 33 0 255 255 255
24 34 0 255 255 255
24 35 0 255 255 255
24 36 -4.60969 255 255 255
24 37 -5.90861 255 255 255
24 38 -2.4057 255 255 255
24 39 -2.99263 255 255 255
24 40 -0.3353 255 255 255
24 41 17.275 255 255 255
24 42 1.25897 255 255 255
24 43 1.97645 255 255 255
24 44 -2.7365 255 255 255
24 45 -6.65701 255 255 255
24 46 -5.6816 255 255 255
24 47 -9.64392 255 255 255
24 48 -10.8376 255 255 255
24 49 -13.6035 255 255 255
24 50 -12.0355 255 255 255
24 51 -14.8025 255 255 255
24 52 -20.9807 255 255 255
24 53 -18.5863 255 255 255
24 54 -17.3339 255 255 255
24 55 -15.3158 255 255 255
24 56 -14.8555 255 255 255
24 57 -15.9143 255 255 255
24 58 -17.5971 255 255 255
24 59 -23.5961 255 255 255
24 60 -13.4212 255 255 255
24 61 -219.015 255 255 255
24 62 -12.4669 255 255 255
24 63 -4.73296 255 255 255
24 64 0.41823 255 255 255
24 65 -4.07813 255 255 255
24 66 -343.035 255 255 255
24 67 -65.0052 255 255 255
24 68 -785.224 255 255 255
24 69 -55.0368 255 255 255
24 70 -19.9641 255 255 255
24 71 -14.2045 255 255 255
24 72 -78.6572 255 255 255
24 73 25.2224 255 255 255
24 74 -31.1688 255 255 255
24 75 40.2639 255 255 255
24 76 0.795292 255 255 255
24 77 150.13 255 255 255
24 78 20.0201 255 255 255
24 79 -0.520718 255 255 255
24 80 55.6351 255 255 255
24 81 22.7671 255 255 255
24 82 0 255 255 255
24 83 0 255 255 255
24 84 0 255 255 255
24 85 0 255 255 255
24 86 0 255 255 255
24 87 0 255 255 255
24 88 0 255 255 255
24 89 0 255 255 255
24 90 0 255 255 255
24 91 0 255 255 255
24 92 0 255 255 255
24 93 0 255 255 255
24 94 0 255 255 255
24 95 0 255 255 255
24 96 0 255 255 255
24 97 0 255 255 255
24 98 0 255 255 255
24 99 0 255 255 255
24 100 0 255 255 255
24 101 0 255 255 255
24 102 0 255 255 255
24 103 0 255 255 255
24 104 0 255 255 255
24 105 0 255 255 255
24 106 0 255 255 255
24 107 0 255 255 255
24 108 0 255 255 255
24 109 0 255 255 255
24 110 0 255 255 255
24 111 0 255 255 255
24 112 0 255 255 255
24 113 0 255 255 255
24 114 0 255 255 255
24 115 0 255 255 255
24 116 0 255 255 255
24 117 0 255 255 255
24 118 0 255 255 255
24 119 0 255 255 255
25 0 0 255 255 255
25 1 0 255 255 255
25 2 0 255 255 255
25 3 0 255 255 255
25 4 0 255 255 255
25 5 0 255 255 255
25 6 0 255 255 255
25 7 0 255 255 255
25 8 0 255 255 255
25 9 0 255 255 255
25 10 0 255 255 255
25 11 0 255 255 255
25 12 0 255 255 255
25 13 0 255 255 255
25 14 0 255 255 255
25 15 0 255 255 255
25 16 0 255 255 255
25 17 0 255 255 255
25 18 0 255 255 255
25 19 0 255 255 255
25 20 0 255 255 255
25 21 0 255 255 255
25 22 0 255 255 255
25 23 0 255 255 255
25 24 0 255 255 255
25 25 0 255 255 255
25 26 0 255 255 255
25 27 0 255 255 255
25 28 0 255 255 255
25 29 0 255 255 255
25 30 0 255 255 255
25 31 0 255 255 255
25 32 0 255 255 255
25 33 0 255 255 255
25 34 0 255 255 255
25 35 -3.06791 255 255 255
25 36 -5.64542 255 255 255
25 37 -6.255 255 255 255
25 38 -2.29903 255 255 255
25 39 -2.92019 255 255 255
25 40 -0.101469 255 255 255
25 41 17.4948 255 255 255
25 42 1.47811 255 255 255
25 43 2.03592 255 255 255
25 44 -2.44486 255 255 255
25 45 -6.33834 255 255 255
25 46 -5.3513 255 255 255
25 47 -9.12652 255 255 255
25 48 -10.3633 255 255 255
25 49 -13.2093 255 255 255
25 50 -11.5156 255 255 255
25 51 -14.3413 255 255 255
25 52 -20.4974 255 255 255
25 53 -18.1262 255 255 255
25 54 -16.8857 255 255 255
25 55 -14.8794 255 255 255
25 56 -14.4366 255 255 255
25 57 -15.4885 255 255 255
25 58 -17.2072 255 255 255
25 59 -23.2188 255 255 255
25 60 -13.0122 255 255 255
25 61 -218.656 255 255 255
25 62 -12.0778 255 255 255
25 63 -4.42063 255 255 255
25 64 0.763034 255 255 255
25 65 -3.7874 255 255 255
25 66 -342.867 255 255 255
25 67 -65.6421 255 255 255
25 68 -792.056 255 255 255
25 69 -69.4851 255 255 255
25 70 -24.8952 255 255 255
25 71 -18.3087 255 255 255
25 72 -81.7715 255 255 255
25 73 22.4677 255 255 255
25 74 -33.4088 255 255 255
25 75 38.0695 255 255 255
25 76 -1.37644 255 255 255
25 77 148.03 255 255 255
25 78 17.6722 255 255 255
25 79 -3.00338 255 255 255
25 80 51.8595 255 255 255
25 81 15.4708 255 255 255
25 82 -27.6007 255 255 255
25 83 32.5774 255 255 255
25 84 0 255 255 255
25 85 0 255 255 255
25 86 0 255 255 255
25 87 0 255 255 255
25 88 0 255 255 255
25 89 0 255 255 255
25 90 0 255 255 255
25 91 0 255 255 255
25 92 0 255 255 255
25 93 0 255 255 255
25 94 0 255 255 255
25 95 0 255 255 255
25 96 0 255 255 255
25 97 0 255 255 255
25 98 0 255 255 255
25 99 0 255 255 255
25 100 0 255 255 255
25 101 0 255 255 255
25 102 0 255 255 255
25 103 0 255 255 255
25 104 0 255 255 255
25 105 0 255 255 255
25 106 0 255 255 255
25 107 0 255 255 255
25 108 0 255 255 255
25 109 0 255 255 255
25 110 0 255 255 255
25 111 0 255 255 255
25 112 0 255 255 255
25 113 0 255 255 255
25 114 0 255 255 255
25 115 0 255 255 255
25 116 0 255 255 255
25 117 0 255 255 255
25 118 0 255 255 255
25 119 0 255 255 255
26 0 0 255 255 255
26 1 0 255 255 255
26 2 0 255 255 255
26 3 0 255 255 255
26 4 0 255 255 255
26 5 0 255 255 255
26 6 0 255 255 255
26 7 0 255 255 255
26 8 0 255 255 255
26 9 0 255 255 255
26 10 0 255 255 255
26 11 0 255 255 255
26 12 0 255 255 255
26 13 0 255 255 255
26 14 0 255 255 255
26 15 0 255 255 255
26 16 0 255 255 255
26 17 0 255 255 255
26 18 0 255 255 255
26 19 0 255 255 255
26 20 0 255 255 255
26 21 0 255 255 255
26 22 0 255 255 255
26 23 0 255 255 255
26 24 0 255 255 255
26 25 0 255 255 255
26 26 0 255 255 255
26 27 0 255 255 255
26 28 0 255 255 255
26 29 0 255 255 255
26 30 0 255 255 255
26 31 0 255 255 255
26 32 0 255 255 255
26 33 -3.66912 255 255 255
26 34 -2.05823 255 255 255
26 35 -3.79807 255 255 255
26 36 -6.06387 255 255 255
26 37 -6.37899 255 255 255
26 38 -2.27242 255 255 255
26 39 -2.80444 255 255 255
26 40 0.118196 255 255 255
26 41 17.7395 255 255 255
26 42 1.70477 255 255 255
26 43 2.16939 255 255 255
26 44 -2.26797 255 255 255
26 45 -6.01314 255 255 255
26 46 -4.97555 255 255 255
26 47 -8.7609 255 255 255
26 48 -9.92077 255 255 255
26 49 -12.7134 255 255 255
26 50 -11.0087 255 255 255
26 51 -13.8399 255 255 255
26 52 -20.0465 255 255 255
26 53 -17.7005 255 255 255
26 54 -16.4058 255 255 255
26 55 -14.4269 255 255 255
26 56 -13.9715 255 255 255
26 57 -15.0482 255 255 255
26 58 -16.8084 255 255 255
26 59 -22.7909 255 255 255
26 60 -12.603 255 255 255
26 61 -218.296 255 255 255
26 62 -11.6742 255 255 255
26 63 -4.0567 255 255 255
26 64 1.0882 255 255 255
26 65 -3.46196 255 255 255
26 66 -342.758 255 255 255
26 67 -66.0505 255 255 255
26 68 -795.958 255 255 255
26 69 -75.6492 255 255 255
26 70 -29.1248 255 255 255
26 71 -21.2192 255 255 255
26 72 -84.5477 255 255 255
26 73 20.2769 255 255 255
26 74 -35.5818 255 255 255
26 75 36.2604 255 255 255
26 76 -3.15769 255 255 255
26 77 146.251 255 255 255
26 78 15.7453 255 255 255
26 79 -4.76895 255 255 255
26 80 49.9727 255 255 255
26 81 13.4626 255 255 255
26 82 -29.6146 255 255 255
26 83 29.4923 255 255 255
26 84 -5.96502 255 255 255
26 85 -19.9883 255 255 255
26 86 35.471 255 255 255
26 87 0 255 255 255
26 88 0 255 255 255
26 89 0 255 255 255
26 90 0 255 255 255
26 91 0 255 255 255
26 92 0 255 255 255
26 93 0 255 255 255
26 94 0 255 255 255
26 95 0 255 255 255
26 96 0 255 255 255
26 97 0 255 255 255
26 98 0 255 255 255
26 99 0 255 255 255
26 100 0 255 255 255
26 101 0 255 255 255
26 102 0 255 255 255
26 103 0 255 255 255
26 104 0 255 255 255
26 105 0 255 255 255
26 106 0 255 255 255
26 107 0 255 255 255
26 108 0 255 255 255
26 109 0 255 255 255
26 110 0 255 255 255
26 111 0 255 255 255
26 112 0 255 255 255
26 113 0 255 255 255
26 114 0 255 255 255
26 115 0 255 255 255
26 116 0 255 255 255
26 117 0 255 255 255
26 118 0 255 255 255
26 119 0 255 255 255
27 0 0 255 255 255
27 1 0 255 255 255
27 2 0 255 255 255
27 3 0 255 255 255
27 4 0 255 255 255
27 5 0 255 255 255
27 6 0 255 255 255
27 7 0 255 255 255
27 8 0 255 255 255
27 9 0 255 255 255
27 10 0 255 255 255
27 11 0 255 255 255
27 12 0 255 255 255
27 13 0 255 255 255
27 14 0 255 255 255
27 15 0 255 255 255
27 16 0 255 255 255
27 17 0 255 255 255
27 18 0 255 255 255
27 19 0 255 255 255
27 20 0 255 255 255
27 21 0 255 255 255
27 22 0 255 255 255
27 23 0 255 255 255
27 24 0 255 255 255
27 25 0 255 255 255
27 26 0 255 255 255
27 27 0 255 255 255
27 28 0 255 255 255
27 29 0 255 255 255
27 30 0 255 255 255
27 31 0 255 255 255
27 32 -3.10011 255 255 255
27 33 -5.67244 255 255 255
27 34 -2.78772 255 255 255
27 35 -4.28482 255 255 255
27 36 -6.25935 255 255 255
27 37 -6.48438 255 255 255
27 38 -2.25822 255 255 255
27 39 -2.72827 255 255 255
27 40 0.326423 255 255 255
27 41 17.9193 255 255 255
27 42 1.90882 255 255 255
27 43 2.32288 255 255 255
27 44 -2.08483 255 255 255
27 45 -5.77469 255 255 255
27 46 -4.68227 255 255 255
27 47 -8.3849 255 255 255
27 48 -9.47573 255 255 255
27 49 -12.2196 255 255 255
27 50 -10.4407 255 255 255
27 51 -13.3108 255 255 255
27 52 -19.5917 255 255 255
27 53 -17.2375 255 255 255
27 54 -15.9415 255 255 255
27 55 -13.9536 255 255 255
27 56 -13.4727 255 255 255
27 57 -14.5829 255 255 255
27 58 -16.3387 255 255 255
27 59 -22.3028 255 255 255
27 60 -12.166 255 255 255
27 61 -217.874 255 255 255
27 62 -11.2603 255 255 255
27 63 -3.6457 255 255 255
27 64 1.40149 255 255 255
27 65 -3.1889 255 255 255
27 66 -342.761 255 255 255
27 67 -67.0163 255 255 255
27 68 -799.132 255 255 255
27 69 -78.3879 255 255 255
27 70 -31.7951 255 255 255
27 71 -23.6551 255 255 255
27 72 -86.8509 255 255 255
27 73 18.2949 255 255 255
27 74 -37.5707 255 255 255
27 75 34.4621 255 255 255
27 76 -4.7221 255 255 255
27 77 144.793 255 255 255
27 78 14.1745 255 255 255
27 79 -6.46224 255 255 255
27 80 48.3803 255 255 255
27 81 11.8002 255 255 255
27 82 -31.3408 255 255 255
27 83 27.6974 255 255 255
27 84 -8.07625 255 255 255
27 85 -22.3284 255 255 255
27 86 32.1322 255 255 255
27 87 -5.539 255 255 255
27 88 -22.9088 255 255 255
27 89 22.7671 255 255 255
27 90 0 255 255 255
27 91 0 255 255 255
27 92 0 255 255 255
27 93 0 255 255 255
27 94 0 255 255 255
27 95 0 255 255 255
27 96 0 255 255 255
27 97 0 255 255 255
27 98 0 255 255 255
27 99 0 255 255 255
27 100 0 255 255 255
27 101 0 255 255 255
27 102 0 255 255 255
27 103 0 255 255 255
27 104 0 255 255 255
27 105 0 255 255 255
27 106 0 255 255 255
27 107 0 255 255 255
27 108 0 255 255 255
27 109 0 255 255 255
27 110 0 255 255 255
27 111 0 255 255 255
27 112 0 255 255 255
27 113 0 255 255 255
27 114 0 255 255 255
27 115 0 255 255 255
27 116 0 255 255 255
27 117 0 255 255 255
27 118 0 255 255 255
27 119 0 255 255 255
28 0 0 255 255 255
28 1 0 255 255 255
28 2 0 255 255 255
28 3 0 255 255 255
28 4 0 255 255 255
28 5 0 255 255 255
28 6 0 255 255 255
28 7 0 255 255 255
28 8 0 255 255 255
28 9 0 255 255 255
28 10 0 255 255 255
28 11 0 255 255 255
28 12 0 255 255 255
28 13 0 255 255 255
28 14 0 255 255 255
28 15 0 255 255 255
28 16 0 255 255 255
28 17 0 255 255 255
28 18 0 255 255 255
28 19 0 255 255 255
28 20 0 255 255 255
28 21 0 255 255 255
28 22 0 255 255 255
28 23 0 255 255 255
28 24 0 255 255 255
28 25 0 255 255 255
28 26 0 255 255 255
28 27 0 255 255 255
28 28 0 255 255 255
28 29 0 255 255 255
28 30 0 255 255 255
28 31 -5.58925 255 255 255
28 32 -5.00005 255 255 255
28 33 -6.40181 255 255 255
28 34 -3.27447 255 255 255
28 35 -4.44868 255 255 255
28 36 -6.30759 255 255 255
28 37 -6.5668 255 255 255
28 38 -2.19725 255 255 255
28 39 -2.5537 255 255 255
28 40 0.546821 255 255 255
28 41 18.158 255 255 255
28 42 2.0253 255 255 255
28 43 2.52057 255 255 255
28 44 -1.86613 255 255 255
28 45 -5.53777 255 255 255
28 46 -4.39421 255 255 255
28 47 -8.02431 255 255 255
28 48 -9.03479 255 255 255
28 49 -11.8107 255 255 255
28 50 -9.84599 255 255 255
28 51 -12.809 255 255 255
28 52 -19.0959 255 255 255
28 53 -16.7405 255 255 255
28 54 -15.4593 255 255 255
28 55 -13.4591 255 255 255
28 56 -13.0117 255 255 255
28 57 -14.1422 255 255 255
28 58 -15.9011 255 255 255
28 59 -21.8463 255 255 255
28 60 -11.7333 255 255 255
28 61 -217.446 255 255 255
28 62 -10.8374 255 255 255
28 63 -3.29223 255 255 255
28 64 1.72232 255 255 255
28 65 -2.96684 255 255 255
28 66 -342.802 255 255 255
28 67 -67.8123 255 255 255
28 68 -800.871 255 255 255
28 69 -79.8599 255 255 255
28 70 -33.0818 255 255 255
28 71 -25.2878 255 255 255
28 72 -88.3364 255 255 255
28 73 16.7645 255 255 255
28 74 -39.1324 255 255 255
28 75 32.8788 255 255 255
28 76 -6.18912 255 255 255
28 77 143.422 255 255 255
28 78 12.8806 255 255 255
28 79 -7.77827 255 255 255
28 80 46.9429 255 255 255
28 81 10.3315 255 255 255
28 82 -32.7494 255 255 255
28 83 26.3156 255 255 255
28 84 -9.51431 255 255 255
28 85 -23.9259 255 255 255
28 86 30.5574 255 255 255
28 87 -7.7328 255 255 255
28 88 -25.6521 255 255 255
28 89 18.5288 255 255 255
28 90 -9.66659 255 255 255
28 91 -64.1701 255 255 255
28 92 0 255 255 255
28 93 0 255 255 255
28 94 0 255 255 255
28 95 0 255 255 255
28 96 0 255 255 255
28 97 0 255 255 255
28 98 0 255 255 255
28 99 0 255 255 255
28 100 0 255 255 255
28 101 0 255 255 255
28 102 0 255 255 255
28 103 0 255 255 255
28 104 0 255 255 255
28 105 0 255 255 255
28 106 0 255 255 255
28 107 0 255 255 255
28 108 0 255 255 255
28 109 0 255 255 255
28 110 0 255 255 255
28 111 0 255 255 255
28 112 0 255 255 255
28 113 0 255 255 255
28 114 0 255 255 255
28 115 0 255 255 255
28 116 0 255 255 255
28 117 0 255 255 255
28 118 0 255 255 255
28 119 0 255 255 255
29 0 0 255 255 255
29 1 0 255 255 255
29 2 0 255 255 255
29 3 0 255 255 255
29 4 0 255 255 255
29 5 0 255 255 255
29 6 0 255 255 255
29 7 0 255 255 255
29 8 0 255 255 255
29 9 0 255 255 255
29 10 0 255 255 255
29 11 0 255 255 255
29 12 0 255 255 255
29 13 0 255 255 255
29 14 0 255 255 255
29 15 0 255 255 255
29 16 0 255 255 255
29 17 0 255 255 255
29 18 0 255 255 255
29 19 0 255 255 255
29 20 0 255 255 255
29 21 0 255 255 255
29 22 0 255 255 255
29 23 0 255 255 255
29 24 0 255 255 255
29 25 0 255 255 255
29 26 0 255 255 255
29 27 0 255 255 255
29 28 0 255 255 255
29 29 0 255 255 255
29 30 -6.19987 255 255 255
29 31 -7.56221 255 255 255
29 32 -5.75998 255 255 255
29 33 -6.98635 255 255 255
29 34 -3.50993 255 255 255
29 35 -4.55608 255 255 255
29 36 -6.37607 255 255 255
29 37 -6.61519 255 255 255
29 38 -2.17601 255 255 255
